ply
format ascii 1.0
element vertex 1126
property float x
property float y
property float z
property uchar red
property uchar green
property uchar blue
end_header
-5.594594 6.297297 -12.972973 91 136 169
-5.256778 5.945774 -12.248804 91 137 170
-5.157233 5.861635 -12.075472 93 139 172
-5.124019 5.852433 -12.056515 94 140 174
-5.043478 5.788820 -11.925466 94 142 176
-4.919330 5.674277 -11.689498 94 142 177
-2.114398 2.451019 -5.049310 95 143 178
-2.379182 2.771747 -5.710037 96 143 177
-2.367286 2.771747 -5.710037 96 143 177
-2.355390 2.771747 -5.710037 95 143 176
-2.310850 2.733138 -5.630498 94 142 176
-2.299120 2.733138 -5.630498 94 142 175
-12.187500 14.562500 -30.000000 95 142 175
-12.125000 14.562500 -30.000000 96 141 174
-12.062500 14.562500 -30.000000 101 139 172
-12.000000 14.562500 -30.000000 128 121 148
-11.937500 14.562500 -30.000000 163 90 99
-11.875000 14.562500 -30.000000 165 72 73
-11.812500 14.562500 -30.000000 173 72 75
-11.750000 14.562500 -30.000000 180 78 83
-11.687500 14.562500 -30.000000 177 80 83
-11.625000 14.562500 -30.000000 172 76 73
-11.562500 14.562500 -30.000000 168 76 74
-11.500000 14.562500 -30.000000 168 81 82
-11.437500 14.562500 -30.000000 173 84 88
-11.375000 14.562500 -30.000000 178 85 91
-11.312500 14.562500 -30.000000 182 90 98
-11.250000 14.562500 -30.000000 187 103 110
-11.187500 14.562500 -30.000000 191 116 124
-11.125000 14.562500 -30.000000 194 128 137
-11.062500 14.562500 -30.000000 200 138 149
-11.000000 14.562500 -30.000000 208 149 162
-10.937500 14.562500 -30.000000 215 163 177
-10.875000 14.562500 -30.000000 221 179 194
-10.812500 14.562500 -30.000000 227 195 210
-10.750000 14.562500 -30.000000 234 209 223
-10.687500 14.562500 -30.000000 241 224 235
-10.225564 14.015038 -28.872181 245 234 243
-10.127341 13.962546 -28.764046 246 241 247
-10.029851 13.910448 -28.656717 246 242 247
-9.970149 13.910448 -28.656717 225 222 229
-9.947565 13.962546 -28.764046 183 183 194
-9.887640 13.962546 -28.764046 173 175 187
-9.827715 13.962546 -28.764046 188 187 197
-9.804511 14.015038 -28.872181 232 229 237
-9.744361 14.015038 -28.872181 248 243 250
-10.062500 14.562500 -30.000000 246 242 248
-10.000000 14.562500 -30.000000 245 239 247
-9.937500 14.562500 -30.000000 240 233 243
-9.875000 14.562500 -30.000000 237 227 239
-9.812500 14.562500 -30.000000 233 220 234
-9.750000 14.562500 -30.000000 229 211 227
-9.687500 14.562500 -30.000000 227 204 220
-9.625000 14.562500 -30.000000 226 198 214
-9.562500 14.562500 -30.000000 220 189 204
-9.500000 14.562500 -30.000000 214 176 192
-9.437500 14.562500 -30.000000 208 163 178
-9.375000 14.562500 -30.000000 202 150 163
-9.312500 14.562500 -30.000000 196 137 147
-9.250000 14.562500 -30.000000 192 128 135
-9.187500 14.562500 -30.000000 185 120 127
-9.125000 14.562500 -30.000000 179 116 124
-9.062500 14.562500 -30.000000 175 114 122
-9.000000 14.562500 -30.000000 169 112 119
-8.937500 14.562500 -30.000000 159 107 113
-8.573585 14.067924 -28.981133 148 103 110
-8.449438 13.962546 -28.764046 143 109 114
-8.358209 13.910448 -28.656717 132 111 113
-8.298508 13.910448 -28.656717 115 102 103
-8.332075 14.067924 -28.981133 120 109 110
-8.562500 14.562500 -30.000000 124 113 114
-8.500000 14.562500 -30.000000 118 108 110
-8.437500 14.562500 -30.000000 98 91 94
-8.375000 14.562500 -30.000000 70 67 69
-8.312500 14.562500 -30.000000 37 37 40
-8.250000 14.562500 -30.000000 19 22 24
-8.187500 14.562500 -30.000000 15 18 20
-8.125000 14.562500 -30.000000 13 16 16
-8.062500 14.562500 -30.000000 12 14 14
-8.000000 14.562500 -30.000000 12 13 14
-7.937500 14.562500 -30.000000 12 13 14
-7.875000 14.562500 -30.000000 12 12 13
-7.812500 14.562500 -30.000000 11 12 13
-7.750000 14.562500 -30.000000 11 11 12
-7.687500 14.562500 -30.000000 11 11 11
-7.625000 14.562500 -30.000000 11 11 11
-7.562500 14.562500 -30.000000 11 12 11
-7.500000 14.562500 -30.000000 11 13 11
-7.437500 14.562500 -30.000000 10 13 12
-7.375000 14.562500 -30.000000 11 14 12
-7.312500 14.562500 -30.000000 13 15 14
-7.250000 14.562500 -30.000000 16 17 16
-7.187500 14.562500 -30.000000 21 21 20
-7.125000 14.562500 -30.000000 27 26 26
-7.062500 14.562500 -30.000000 36 34 34
-7.000000 14.562500 -30.000000 47 42 43
-6.937500 14.562500 -30.000000 57 52 52
-6.875000 14.562500 -30.000000 67 61 62
-6.812500 14.562500 -30.000000 76 70 71
-6.750000 14.562500 -30.000000 86 80 81
-6.687500 14.562500 -30.000000 95 89 90
-6.625000 14.562500 -30.000000 100 95 96
-6.562500 14.562500 -30.000000 105 99 100
-6.500000 14.562500 -30.000000 108 100 98
-6.437500 14.562500 -30.000000 108 98 97
-6.375000 14.562500 -30.000000 107 98 97
-6.312500 14.562500 -30.000000 105 96 97
-6.250000 14.562500 -30.000000 103 96 97
-6.187500 14.562500 -30.000000 100 95 95
-6.125000 14.562500 -30.000000 98 94 93
-6.062500 14.562500 -30.000000 99 94 93
-6.000000 14.562500 -30.000000 99 95 98
-5.937500 14.562500 -30.000000 100 96 101
-5.875000 14.562500 -30.000000 98 96 101
-5.812500 14.562500 -30.000000 97 98 101
-5.750000 14.562500 -30.000000 96 99 100
-5.687500 14.562500 -30.000000 95 99 98
-5.625000 14.562500 -30.000000 94 99 97
-5.562500 14.562500 -30.000000 94 98 97
-5.500000 14.562500 -30.000000 96 96 99
-5.437500 14.562500 -30.000000 97 96 102
-5.375000 14.562500 -30.000000 96 98 103
-5.312500 14.562500 -30.000000 97 98 103
-5.250000 14.562500 -30.000000 101 97 101
-5.187500 14.562500 -30.000000 108 94 97
-5.125000 14.562500 -30.000000 112 87 89
-5.062500 14.562500 -30.000000 110 78 80
-5.000000 14.562500 -30.000000 115 84 84
-4.937500 14.562500 -30.000000 120 94 95
-4.875000 14.562500 -30.000000 116 96 99
-4.812500 14.562500 -30.000000 121 109 115
-4.750000 14.562500 -30.000000 123 113 122
-4.687500 14.562500 -30.000000 131 110 119
-4.625000 14.562500 -30.000000 136 90 97
-4.562500 14.562500 -30.000000 139 71 74
-4.500000 14.562500 -30.000000 146 69 66
-4.437500 14.562500 -30.000000 143 58 51
-4.375000 14.562500 -30.000000 148 51 43
-4.312500 14.562500 -30.000000 154 48 41
-4.250000 14.562500 -30.000000 155 46 41
-4.187500 14.562500 -30.000000 155 46 44
-4.125000 14.562500 -30.000000 158 46 45
-4.062500 14.562500 -30.000000 163 48 47
-4.000000 14.562500 -30.000000 165 49 48
-3.937500 14.562500 -30.000000 168 51 50
-3.875000 14.562500 -30.000000 171 51 51
-3.812500 14.562500 -30.000000 173 50 51
-3.750000 14.562500 -30.000000 175 51 53
-3.687500 14.562500 -30.000000 177 53 55
-3.625000 14.562500 -30.000000 178 55 56
-3.562500 14.562500 -30.000000 179 56 57
-3.500000 14.562500 -30.000000 179 55 58
-3.437500 14.562500 -30.000000 178 53 57
-3.375000 14.562500 -30.000000 179 51 56
-3.312500 14.562500 -30.000000 179 52 56
-3.250000 14.562500 -30.000000 177 54 57
-3.187500 14.562500 -30.000000 174 56 59
-3.125000 14.562500 -30.000000 174 58 61
-3.062500 14.562500 -30.000000 175 58 62
-3.000000 14.562500 -30.000000 175 59 65
-2.937500 14.562500 -30.000000 175 61 68
-2.875000 14.562500 -30.000000 172 61 67
-2.812500 14.562500 -30.000000 167 60 65
-2.750000 14.562500 -30.000000 165 61 64
-2.687500 14.562500 -30.000000 165 64 67
-2.625000 14.562500 -30.000000 165 67 68
-2.562500 14.562500 -30.000000 166 70 70
-2.500000 14.562500 -30.000000 167 69 69
-2.437500 14.562500 -30.000000 166 63 66
-2.375000 14.562500 -30.000000 174 67 73
-2.312500 14.562500 -30.000000 179 69 74
-2.250000 14.562500 -30.000000 180 66 70
-2.187500 14.562500 -30.000000 182 62 69
-2.125000 14.562500 -30.000000 180 65 73
-2.062500 14.562500 -30.000000 182 85 93
-2.000000 14.562500 -30.000000 181 89 97
-1.937500 14.562500 -30.000000 175 69 79
-1.875000 14.562500 -30.000000 181 65 74
-1.812500 14.562500 -30.000000 176 69 74
-1.750000 14.562500 -30.000000 168 76 76
-1.687500 14.562500 -30.000000 165 86 85
-1.625000 14.562500 -30.000000 167 97 99
-1.562500 14.562500 -30.000000 166 100 105
-1.500000 14.562500 -30.000000 165 102 106
-1.437500 14.562500 -30.000000 166 104 107
-1.375000 14.562500 -30.000000 166 106 108
-1.312500 14.562500 -30.000000 166 115 115
-1.250000 14.562500 -30.000000 169 130 129
-1.187500 14.562500 -30.000000 165 136 136
-1.125000 14.562500 -30.000000 161 138 141
-1.062500 14.562500 -30.000000 159 138 144
-1.000000 14.562500 -30.000000 164 132 139
-0.937500 14.562500 -30.000000 163 108 116
-0.875000 14.562500 -30.000000 165 92 100
-0.812500 14.562500 -30.000000 168 93 97
-0.750000 14.562500 -30.000000 167 94 98
-0.687500 14.562500 -30.000000 168 92 101
-0.625000 14.562500 -30.000000 167 98 112
-0.562500 14.562500 -30.000000 159 109 123
-0.500000 14.562500 -30.000000 153 109 124
-0.437500 14.562500 -30.000000 149 112 128
-0.375000 14.562500 -30.000000 139 117 135
-0.312500 14.562500 -30.000000 126 120 140
-0.250000 14.562500 -30.000000 116 124 148
-0.187500 14.562500 -30.000000 108 127 156
-0.125000 14.562500 -30.000000 102 130 163
-0.062500 14.562500 -30.000000 98 132 168
0.000000 14.562500 -30.000000 93 134 171
0.062500 14.562500 -30.000000 91 135 171
0.125000 14.562500 -30.000000 91 135 171
0.187500 14.562500 -30.000000 91 135 172
0.250000 14.562500 -30.000000 92 136 173
0.312500 14.562500 -30.000000 91 135 171
0.375000 14.562500 -30.000000 92 134 171
0.437500 14.562500 -30.000000 93 133 170
0.500000 14.562500 -30.000000 90 134 168
0.562500 14.562500 -30.000000 89 135 168
0.625000 14.562500 -30.000000 89 135 168
0.687500 14.562500 -30.000000 89 135 168
0.750000 14.562500 -30.000000 89 135 168
0.812500 14.562500 -30.000000 89 135 168
0.875000 14.562500 -30.000000 89 135 168
0.937500 14.562500 -30.000000 90 136 169
1.000000 14.562500 -30.000000 90 136 171
1.062500 14.562500 -30.000000 90 136 172
1.125000 14.562500 -30.000000 91 137 172
1.187500 14.562500 -30.000000 91 137 172
1.250000 14.562500 -30.000000 91 137 172
1.312500 14.562500 -30.000000 91 137 171
1.375000 14.562500 -30.000000 90 136 170
1.437500 14.562500 -30.000000 90 136 170
1.500000 14.562500 -30.000000 91 135 171
1.562500 14.562500 -30.000000 91 135 172
1.625000 14.562500 -30.000000 91 135 172
1.687500 14.562500 -30.000000 91 135 172
1.671642 13.910448 -28.656717 91 135 172
1.812500 14.562500 -30.000000 91 135 172
1.875000 14.562500 -30.000000 91 135 172
1.937500 14.562500 -30.000000 91 135 172
2.000000 14.562500 -30.000000 91 136 171
2.062500 14.562500 -30.000000 91 137 171
2.125000 14.562500 -30.000000 91 137 171
2.187500 14.562500 -30.000000 91 137 171
2.250000 14.562500 -30.000000 91 137 171
2.312500 14.562500 -30.000000 91 137 171
2.375000 14.562500 -30.000000 91 137 171
2.437500 14.562500 -30.000000 91 137 171
2.500000 14.562500 -30.000000 91 137 171
2.562500 14.562500 -30.000000 91 137 171
2.625000 14.562500 -30.000000 91 137 171
2.687500 14.562500 -30.000000 91 137 171
2.750000 14.562500 -30.000000 90 138 171
2.812500 14.562500 -30.000000 89 138 171
2.875000 14.562500 -30.000000 90 139 172
2.937500 14.562500 -30.000000 90 139 172
2.285714 11.095238 -22.857143 92 138 175
2.130435 10.130435 -20.869566 92 139 175
2.122016 9.888595 -20.371353 92 139 175
2.136126 9.759162 -20.104712 92 140 174
2.166667 9.708333 -20.000000 92 141 174
2.208333 9.708333 -20.000000 93 141 176
2.250000 9.708333 -20.000000 93 141 177
1.880342 7.965812 -16.410257 93 141 178
1.906383 7.931915 -16.340425 93 142 179
1.948718 7.965812 -16.410257 93 143 179
3.625000 14.562500 -30.000000 93 143 180
3.687500 14.562500 -30.000000 94 144 181
3.750000 14.562500 -30.000000 94 143 182
3.812500 14.562500 -30.000000 94 143 183
3.875000 14.562500 -30.000000 94 143 183
3.937500 14.562500 -30.000000 94 143 183
4.000000 14.562500 -30.000000 93 144 183
4.062500 14.562500 -30.000000 93 145 184
4.125000 14.562500 -30.000000 93 145 184
4.187500 14.562500 -30.000000 93 145 184
4.250000 14.562500 -30.000000 93 145 184
4.312500 14.562500 -30.000000 93 145 184
4.375000 14.562500 -30.000000 93 145 184
4.437500 14.562500 -30.000000 93 145 184
4.500000 14.562500 -30.000000 94 146 185
4.562500 14.562500 -30.000000 94 146 185
4.625000 14.562500 -30.000000 94 147 186
4.687500 14.562500 -30.000000 94 148 187
4.750000 14.562500 -30.000000 94 149 187
4.812500 14.562500 -30.000000 94 150 187
4.875000 14.562500 -30.000000 94 150 187
4.937500 14.562500 -30.000000 93 150 187
5.000000 14.562500 -30.000000 93 150 187
5.062500 14.562500 -30.000000 94 150 188
5.125000 14.562500 -30.000000 94 149 188
5.187500 14.562500 -30.000000 95 149 190
5.250000 14.562500 -30.000000 95 148 190
5.312500 14.562500 -30.000000 97 149 190
1.507119 4.083242 -8.411829 98 150 190
1.445483 3.871236 -7.975078 98 150 189
1.459067 3.863212 -7.958549 99 149 187
1.463515 3.831449 -7.893114 98 148 185
1.475410 3.819672 -7.868853 97 147 183
1.476673 3.780933 -7.789047 96 146 181
1.491388 3.777102 -7.781155 95 145 179
1.515275 3.796334 -7.820774 95 144 177
1.536261 3.807967 -7.844739 94 143 176
1.552605 3.807967 -7.844739 94 143 176
1.568948 3.807967 -7.844739 94 142 176
1.588536 3.815763 -7.860798 94 141 175
1.613169 3.835391 -7.901235 93 139 173
1.398058 3.290380 -6.778464 90 136 170
1.409692 3.284581 -6.766520 90 136 170
1.423789 3.284581 -6.766520 90 136 170
1.321458 3.018624 -6.218624 91 135 170
1.310016 2.963434 -6.104928 91 135 170
1.332266 2.984788 -6.148919 91 135 171
1.716037 3.807967 -7.844739 91 135 172
1.737705 3.819672 -7.868853 91 135 172
1.229885 2.678161 -5.517241 91 135 172
1.232525 2.659059 -5.477889 91 135 172
1.243937 2.659059 -5.477889 91 135 172
1.249113 2.645848 -5.450674 91 135 172
1.259574 2.643972 -5.446808 91 135 172
1.271824 2.645848 -5.450674 91 135 172
1.283180 2.645848 -5.450674 92 136 173
1.295455 2.647727 -5.454545 92 136 173
1.307747 2.649609 -5.458422 92 136 173
1.320057 2.651494 -5.462305 91 135 172
1.321101 2.630910 -5.419901 91 135 172
1.327707 2.621660 -5.400844 90 134 171
1.338959 2.621660 -5.400844 90 134 170
1.703638 3.307897 -6.814552 90 134 168
1.717835 3.307897 -6.814552 90 135 168
1.150943 2.198113 -4.528302 90 135 168
1.159694 2.196818 -4.525633 90 135 168
1.169122 2.196818 -4.525633 89 135 168
1.180638 2.200708 -4.533648 89 135 168
1.190083 2.200708 -4.533648 89 135 169
1.198113 2.198113 -4.528302 90 136 169
1.206125 2.195524 -4.522968 90 136 170
1.211979 2.189078 -4.509689 91 135 170
1.699346 3.045752 -6.274510 91 135 170
1.712418 3.045752 -6.274510 92 135 169
2.186335 3.859213 -7.950311 91 135 169
2.212058 3.875260 -7.983368 90 136 171
2.219462 3.859213 -7.950311 89 137 174
2.219938 3.831449 -7.893114 88 139 176
2.227226 3.815763 -7.860798 88 142 181
2.223124 3.780933 -7.789047 91 147 187
2.221328 3.750503 -7.726358 94 151 192
2.188976 3.669291 -7.559055 95 153 196
2.178988 3.626459 -7.470817 94 154 199
2.177606 3.598456 -7.413127 93 155 201
2.184615 3.584615 -7.384615 93 156 204
2.191571 3.570881 -7.356322 93 157 205
2.194286 3.550476 -7.314286 94 158 205
2.226488 3.577735 -7.370441 93 158 205
2.254826 3.598456 -7.413127 92 158 205
2.274662 3.605416 -7.427466 92 159 205
2.290135 3.605416 -7.427466 93 159 206
2.305609 3.605416 -7.427466 94 159 206
2.721088 4.226758 -8.707483 94 157 205
2.855792 4.406620 -9.078014 94 156 204
2.874705 4.406620 -9.078014 94 156 202
2.853147 4.344988 -8.951049 93 155 200
2.816000 4.260571 -8.777143 93 153 197
2.786517 4.188764 -8.629213 93 151 194
2.764120 4.128461 -8.504983 93 150 190
2.721560 4.039003 -8.320693 93 147 187
2.712446 4.000000 -8.240343 93 146 185
2.703507 3.961743 -8.161530 92 144 183
2.711864 3.949152 -8.135593 90 143 179
2.711579 3.924211 -8.084210 90 141 175
2.728421 3.924211 -8.084210 89 138 173
2.822511 4.034632 -8.311688 88 134 169
2.839827 4.034632 -8.311688 88 131 166
2.835661 4.004296 -8.249194 87 130 164
2.843683 3.991435 -8.222698 85 128 162
2.860814 3.991435 -8.222698 84 127 160
2.887218 4.004296 -8.249194 84 127 159
2.910657 4.012917 -8.266953 84 127 159
3.215130 4.406620 -9.078014 83 126 158
3.196262 4.355140 -8.971963 83 126 158
3.148741 4.265446 -8.787186 83 126 158
3.149033 4.241183 -8.737202 82 125 157
3.149321 4.217195 -8.687783 82 125 157
3.142536 4.184063 -8.619529 82 125 157
3.139354 4.156076 -8.561872 82 126 156
3.071584 4.043384 -8.329718 83 126 156
3.085590 4.039003 -8.320693 83 127 157
3.254545 4.236363 -8.727273 83 126 158
3.272727 4.236363 -8.727273 83 126 158
3.290909 4.236363 -8.727273 83 126 159
3.294118 4.217195 -8.687783 84 127 160
3.334852 4.246014 -8.747152 84 127 160
3.403468 4.309826 -8.878613 84 127 160
11.562500 14.562500 -30.000000 84 127 159
11.625000 14.562500 -30.000000 84 127 158
11.687500 14.562500 -30.000000 84 127 157
11.750000 14.562500 -30.000000 85 127 157
11.812500 14.562500 -30.000000 85 126 156
11.875000 14.562500 -30.000000 84 126 154
11.937500 14.562500 -30.000000 83 125 154
12.000000 14.562500 -30.000000 84 125 154
12.062500 14.562500 -30.000000 84 125 155
12.125000 14.562500 -30.000000 83 124 154
12.187500 14.562500 -30.000000 83 124 154
12.250000 14.562500 -30.000000 83 124 154
12.312500 14.562500 -30.000000 83 124 154
12.375000 14.562500 -30.000000 83 124 155
12.437500 14.562500 -30.000000 84 125 156
12.500000 14.562500 -30.000000 83 124 155
12.562500 14.562500 -30.000000 83 124 154
12.625000 14.562500 -30.000000 83 124 154
12.687500 14.562500 -30.000000 83 124 154
12.750000 14.562500 -30.000000 83 124 154
12.812500 14.562500 -30.000000 83 124 154
12.875000 14.562500 -30.000000 83 124 154
12.937500 14.562500 -30.000000 84 125 155
13.000000 14.562500 -30.000000 84 125 154
13.062500 14.562500 -30.000000 85 126 154
13.125000 14.562500 -30.000000 85 126 154
13.187500 14.562500 -30.000000 85 126 154
13.250000 14.562500 -30.000000 85 126 154
13.312500 14.562500 -30.000000 85 126 154
13.375000 14.562500 -30.000000 85 126 154
13.437500 14.562500 -30.000000 85 126 154
13.500000 14.562500 -30.000000 86 127 156
13.562500 14.562500 -30.000000 85 126 156
13.625000 14.562500 -30.000000 85 126 156
13.687500 14.562500 -30.000000 85 126 156
13.750000 14.562500 -30.000000 84 125 155
13.812500 14.562500 -30.000000 84 125 155
13.875000 14.562500 -30.000000 84 125 155
13.937500 14.562500 -30.000000 84 125 155
14.000000 14.562500 -30.000000 84 125 155
14.062500 14.562500 -30.000000 84 125 155
14.125000 14.562500 -30.000000 84 125 155
14.187500 14.562500 -30.000000 84 125 155
14.250000 14.562500 -30.000000 83 124 155
14.312500 14.562500 -30.000000 83 124 156
14.375000 14.562500 -30.000000 84 125 157
14.437500 14.562500 -30.000000 83 124 156
14.500000 14.562500 -30.000000 83 124 156
14.562500 14.562500 -30.000000 82 123 155
14.625000 14.562500 -30.000000 82 123 155
14.687500 14.562500 -30.000000 82 123 155
14.750000 14.562500 -30.000000 82 123 155
14.812500 14.562500 -30.000000 82 123 155
14.315789 14.015038 -28.872181 82 123 155
14.375940 14.015038 -28.872181 82 123 155
15.000000 14.562500 -30.000000 82 123 155
15.062500 14.562500 -30.000000 82 123 155
15.125000 14.562500 -30.000000 82 123 155
15.187500 14.562500 -30.000000 82 123 155
15.250000 14.562500 -30.000000 82 123 155
15.312500 14.562500 -30.000000 82 123 155
15.375000 14.562500 -30.000000 82 123 155
15.437500 14.562500 -30.000000 82 123 155
15.500000 14.562500 -30.000000 81 123 155
15.562500 14.562500 -30.000000 80 123 155
15.625000 14.562500 -30.000000 81 124 156
15.687500 14.562500 -30.000000 81 124 156
15.750000 14.562500 -30.000000 81 124 156
15.812500 14.562500 -30.000000 81 124 156
15.875000 14.562500 -30.000000 80 123 155
15.937500 14.562500 -30.000000 80 123 155
16.000000 14.562500 -30.000000 82 122 155
16.062500 14.562500 -30.000000 83 122 155
16.125000 14.562500 -30.000000 83 122 155
16.187500 14.562500 -30.000000 82 123 155
16.250000 14.562500 -30.000000 82 123 155
16.312500 14.562500 -30.000000 81 123 155
16.375000 14.562500 -30.000000 81 123 155
16.437500 14.562500 -30.000000 81 124 156
16.500000 14.562500 -30.000000 81 124 156
16.562500 14.562500 -30.000000 81 124 156
16.625000 14.562500 -30.000000 81 124 156
16.687500 14.562500 -30.000000 81 124 156
16.750000 14.562500 -30.000000 81 124 156
16.812500 14.562500 -30.000000 81 124 156
16.875000 14.562500 -30.000000 81 124 156
16.937500 14.562500 -30.000000 82 124 155
17.000000 14.562500 -30.000000 84 123 154
17.062500 14.562500 -30.000000 81 124 157
17.125000 14.562500 -30.000000 81 124 158
17.187500 14.562500 -30.000000 82 124 155
17.250000 14.562500 -30.000000 82 125 154
17.312500 14.562500 -30.000000 93 123 141
17.375000 14.562500 -30.000000 91 123 138
17.437500 14.562500 -30.000000 80 126 152
17.500000 14.562500 -30.000000 78 128 159
17.562500 14.562500 -30.000000 81 127 159
17.625000 14.562500 -30.000000 84 127 156
17.687500 14.562500 -30.000000 86 126 155
17.750000 14.562500 -30.000000 87 126 155
17.812500 14.562500 -30.000000 87 126 156
17.875000 14.562500 -30.000000 86 127 159
17.937500 14.562500 -30.000000 85 128 161
18.000000 14.562500 -30.000000 86 128 160
18.062500 14.562500 -30.000000 86 127 159
18.125000 14.562500 -30.000000 86 128 162
18.187500 14.562500 -30.000000 84 128 162
18.250000 14.562500 -30.000000 84 128 162
18.312500 14.562500 -30.000000 84 128 163
18.375000 14.562500 -30.000000 85 128 163
18.437500 14.562500 -30.000000 85 128 163
18.500000 14.562500 -30.000000 85 129 162
18.562500 14.562500 -30.000000 85 129 161
18.625000 14.562500 -30.000000 85 129 162
18.687500 14.562500 -30.000000 86 129 163
18.750000 14.562500 -30.000000 86 128 162
18.812500 14.562500 -30.000000 86 128 162
18.875000 14.562500 -30.000000 87 127 163
18.937500 14.562500 -30.000000 87 127 163
19.000000 14.562500 -30.000000 86 128 163
19.062500 14.562500 -30.000000 85 128 163
19.125000 14.562500 -30.000000 86 128 163
19.187500 14.562500 -30.000000 86 129 163
19.250000 14.562500 -30.000000 86 129 163
19.312500 14.562500 -30.000000 86 129 163
19.375000 14.562500 -30.000000 86 129 163
19.437500 14.562500 -30.000000 86 129 162
19.500000 14.562500 -30.000000 86 129 162
19.562500 14.562500 -30.000000 86 129 161
19.625000 14.562500 -30.000000 86 130 161
19.687500 14.562500 -30.000000 86 130 161
19.750000 14.562500 -30.000000 86 130 161
19.812500 14.562500 -30.000000 86 130 161
19.875000 14.562500 -30.000000 86 130 161
19.937500 14.562500 -30.000000 86 130 161
20.000000 14.562500 -30.000000 85 130 161
20.062500 14.562500 -30.000000 85 131 161
20.125000 14.562500 -30.000000 85 131 162
20.187500 14.562500 -30.000000 85 131 162
20.250000 14.562500 -30.000000 86 131 162
20.312500 14.562500 -30.000000 86 132 162
20.375000 14.562500 -30.000000 86 132 162
20.437500 14.562500 -30.000000 86 131 162
20.500000 14.562500 -30.000000 87 131 162
20.562500 14.562500 -30.000000 87 131 163
20.625000 14.562500 -30.000000 88 131 163
20.687500 14.562500 -30.000000 87 131 163
20.750000 14.562500 -30.000000 87 131 164
20.812500 14.562500 -30.000000 87 131 165
20.875000 14.562500 -30.000000 87 130 164
20.937500 14.562500 -30.000000 87 130 164
21.000000 14.562500 -30.000000 86 130 164
21.062500 14.562500 -30.000000 86 129 163
21.125000 14.562500 -30.000000 86 129 163
21.187500 14.562500 -30.000000 86 129 163
20.528301 14.067924 -28.981133 86 129 163
21.312500 14.562500 -30.000000 86 129 163
21.375000 14.562500 -30.000000 86 129 163
21.437500 14.562500 -30.000000 86 129 163
21.500000 14.562500 -30.000000 86 129 163
21.562500 14.562500 -30.000000 86 129 162
21.625000 14.562500 -30.000000 86 129 162
21.687500 14.562500 -30.000000 86 129 162
21.750000 14.562500 -30.000000 86 130 163
21.812500 14.562500 -30.000000 87 131 164
21.875000 14.562500 -30.000000 88 132 165
21.937500 14.562500 -30.000000 89 133 166
22.000000 14.562500 -30.000000 89 132 167
22.062500 14.562500 -30.000000 88 131 167
22.125000 14.562500 -30.000000 87 130 165
22.187500 14.562500 -30.000000 87 130 165
22.250000 14.562500 -30.000000 87 130 164
22.312500 14.562500 -30.000000 87 130 163
22.375000 14.562500 -30.000000 87 130 162
22.437500 14.562500 -30.000000 87 130 162
22.500000 14.562500 -30.000000 86 131 162
22.562500 14.562500 -30.000000 86 131 162
22.625000 14.562500 -30.000000 87 132 163
22.687500 14.562500 -30.000000 88 133 164
22.750000 14.562500 -30.000000 89 134 166
22.812500 14.562500 -30.000000 89 134 167
22.875000 14.562500 -30.000000 90 134 169
22.937500 14.562500 -30.000000 90 134 170
23.000000 14.562500 -30.000000 91 135 170
23.062500 14.562500 -30.000000 91 135 170
23.125000 14.562500 -30.000000 91 136 170
23.187500 14.562500 -30.000000 92 137 171
23.250000 14.562500 -30.000000 92 138 172
23.312500 14.562500 -30.000000 92 138 172
23.375000 14.562500 -30.000000 92 139 173
23.437500 14.562500 -30.000000 92 139 173
23.500000 14.562500 -30.000000 92 139 173
23.562500 14.562500 -30.000000 93 139 174
23.625000 14.562500 -30.000000 93 140 174
23.687500 14.562500 -30.000000 93 140 175
23.750000 14.562500 -30.000000 93 140 175
23.812500 14.562500 -30.000000 94 140 175
23.875000 14.562500 -30.000000 94 141 175
23.937500 14.562500 -30.000000 94 141 175
24.000000 14.562500 -30.000000 93 142 175
24.062500 14.562500 -30.000000 93 142 175
24.125000 14.562500 -30.000000 93 142 175
24.187500 14.562500 -30.000000 93 142 175
24.250000 14.562500 -30.000000 94 143 175
24.312500 14.562500 -30.000000 94 143 175
24.375000 14.562500 -30.000000 93 142 175
24.437500 14.562500 -30.000000 93 142 175
7.733662 4.596794 -9.469790 94 142 176
7.668293 4.546341 -9.365853 94 141 176
7.622733 4.507860 -9.286578 94 141 176
24.687500 14.562500 -30.000000 94 141 176
24.750000 14.562500 -30.000000 93 140 175
24.812500 14.562500 -30.000000 93 140 175
24.875000 14.562500 -30.000000 92 139 174
24.937500 14.562500 -30.000000 92 139 174
25.000000 14.562500 -30.000000 93 139 175
25.062500 14.562500 -30.000000 93 139 175
25.125000 14.562500 -30.000000 93 139 175
25.187500 14.562500 -30.000000 93 139 175
25.250000 14.562500 -30.000000 93 139 175
25.312500 14.562500 -30.000000 93 139 175
25.375000 14.562500 -30.000000 93 139 174
25.437500 14.562500 -30.000000 93 139 174
25.500000 14.562500 -30.000000 92 139 174
25.562500 14.562500 -30.000000 91 139 175
25.625000 14.562500 -30.000000 91 139 175
25.687500 14.562500 -30.000000 91 139 175
25.750000 14.562500 -30.000000 92 140 174
25.812500 14.562500 -30.000000 92 141 174
25.875000 14.562500 -30.000000 93 142 175
25.937500 14.562500 -30.000000 93 142 175
26.000000 14.562500 -30.000000 93 142 178
26.062500 14.562500 -30.000000 94 144 181
26.125000 14.562500 -30.000000 95 145 183
26.187500 14.562500 -30.000000 95 146 185
26.250000 14.562500 -30.000000 96 148 188
26.312500 14.562500 -30.000000 96 149 191
26.375000 14.562500 -30.000000 97 151 193
26.437500 14.562500 -30.000000 98 152 194
26.500000 14.562500 -30.000000 98 153 193
26.562500 14.562500 -30.000000 98 153 193
26.625000 14.562500 -30.000000 99 154 194
26.687500 14.562500 -30.000000 98 155 195
26.750000 14.562500 -30.000000 97 155 195
25.422222 13.807407 -28.444445 98 156 196
22.706270 12.303631 -25.346535 98 155 197
20.833838 11.262840 -23.202417 97 156 198
20.449703 11.029586 -22.721893 98 155 197
18.724325 10.075676 -20.756756 100 155 197
18.178011 9.759162 -20.104712 99 156 197
17.800512 9.534527 -19.641943 99 156 199
17.527637 9.366835 -19.296482 100 157 200
17.523809 9.343358 -19.248119 101 158 201
17.563910 9.343358 -19.248119 101 158 201
18.291666 9.708333 -20.000000 102 159 202
18.333334 9.708333 -20.000000 102 159 202
23.364239 12.344371 -25.430464 101 160 204
17.680000 9.320000 -19.200001 100 161 205
16.836105 8.855107 -18.242281 100 162 206
16.000000 8.396397 -17.297297 99 162 206
18.736841 9.810526 -20.210526 100 161 205
18.828497 9.836411 -20.263853 103 161 205
18.970821 9.888595 -20.371353 103 160 203
19.013262 9.888595 -20.371353 100 157 198
18.708334 9.708333 -20.000000 92 142 178
18.227848 9.437975 -19.443037 75 114 143
17.557178 9.070560 -18.686131 57 86 108
17.384615 8.961538 -18.461538 48 74 91
17.257143 8.876190 -18.285715 53 83 104
16.814816 8.629630 -17.777779 72 111 140
21.602373 11.062315 -22.789318 92 140 178
20.610170 10.531074 -21.694916 102 158 200
20.655367 10.531074 -21.694916 104 162 205
20.700565 10.531074 -21.694916 105 163 205
20.745762 10.531074 -21.694916 105 164 205
20.616247 10.442577 -21.512606 102 164 207
20.153006 10.185792 -20.983606 101 165 209
19.924528 10.048517 -20.700809 100 166 211
20.185286 10.158038 -20.926430 101 166 211
-30.000000 14.500000 -30.000000 100 149 182
-29.937500 14.500000 -30.000000 101 150 183
-29.875000 14.500000 -30.000000 102 151 184
-29.812500 14.500000 -30.000000 102 151 184
-29.750000 14.500000 -30.000000 101 150 183
-29.687500 14.500000 -30.000000 101 150 183
-29.625000 14.500000 -30.000000 100 149 184
-29.562500 14.500000 -30.000000 99 147 183
-29.500000 14.500000 -30.000000 98 146 183
-29.437500 14.500000 -30.000000 98 146 184
-29.375000 14.500000 -30.000000 99 147 184
-29.312500 14.500000 -30.000000 100 148 184
-29.250000 14.500000 -30.000000 101 149 184
-29.187500 14.500000 -30.000000 101 149 184
-29.125000 14.500000 -30.000000 101 150 183
-29.062500 14.500000 -30.000000 101 151 184
-29.000000 14.500000 -30.000000 99 151 185
-28.937500 14.500000 -30.000000 98 151 185
-28.875000 14.500000 -30.000000 98 151 185
-28.812500 14.500000 -30.000000 98 151 185
-28.750000 14.500000 -30.000000 98 151 185
-28.687500 14.500000 -30.000000 99 152 186
-28.625000 14.500000 -30.000000 99 153 187
-28.562500 14.500000 -30.000000 100 153 187
-28.500000 14.500000 -30.000000 99 152 186
-28.437500 14.500000 -30.000000 98 152 185
-28.375000 14.500000 -30.000000 98 151 183
-28.312500 14.500000 -30.000000 98 150 182
-28.250000 14.500000 -30.000000 99 149 182
-28.187500 14.500000 -30.000000 99 148 183
-28.125000 14.500000 -30.000000 98 147 184
-28.062500 14.500000 -30.000000 98 146 184
-28.000000 14.500000 -30.000000 98 148 185
-27.937500 14.500000 -30.000000 98 148 185
-27.875000 14.500000 -30.000000 98 147 185
-27.812500 14.500000 -30.000000 98 146 184
-27.750000 14.500000 -30.000000 97 145 183
-27.687500 14.500000 -30.000000 97 145 183
-27.625000 14.500000 -30.000000 98 144 183
-27.562500 14.500000 -30.000000 99 144 183
-27.500000 14.500000 -30.000000 98 145 182
-27.437500 14.500000 -30.000000 97 145 182
-27.375000 14.500000 -30.000000 97 145 183
-27.312500 14.500000 -30.000000 98 144 183
-27.250000 14.500000 -30.000000 98 143 182
-23.754267 12.668942 -26.211603 98 143 180
-22.114649 11.821656 -24.458599 97 143 177
-21.924051 11.746836 -24.303797 97 143 176
-27.000000 14.500000 -30.000000 95 143 175
-26.937500 14.500000 -30.000000 94 143 175
-26.875000 14.500000 -30.000000 94 143 175
-26.812500 14.500000 -30.000000 95 142 175
-26.750000 14.500000 -30.000000 95 141 175
-26.687500 14.500000 -30.000000 95 141 175
-26.625000 14.500000 -30.000000 95 141 175
-26.562500 14.500000 -30.000000 95 141 175
-26.500000 14.500000 -30.000000 95 141 174
-26.437500 14.500000 -30.000000 95 141 174
-26.375000 14.500000 -30.000000 94 140 173
-26.312500 14.500000 -30.000000 94 140 173
-26.250000 14.500000 -30.000000 94 140 173
-26.187500 14.500000 -30.000000 93 139 172
-23.222221 12.888889 -26.666666 93 139 172
-22.240000 12.373333 -25.600000 93 139 172
-22.039736 12.291390 -25.430464 93 139 172
-22.059801 12.332226 -25.514950 93 139 172
-22.006645 12.332226 -25.514950 93 139 172
-25.812500 14.500000 -30.000000 93 139 172
-25.750000 14.500000 -30.000000 93 139 172
-25.687500 14.500000 -30.000000 93 139 172
-25.625000 14.500000 -30.000000 93 139 172
-25.562500 14.500000 -30.000000 93 139 172
-25.500000 14.500000 -30.000000 94 139 172
-25.437500 14.500000 -30.000000 94 139 172
-25.375000 14.500000 -30.000000 94 139 172
-25.312500 14.500000 -30.000000 94 139 172
-22.921986 13.163120 -27.234043 93 138 171
-22.234482 12.800000 -26.482759 93 138 171
-21.877550 12.625851 -26.122450 93 138 171
-21.823130 12.625851 -26.122450 93 138 171
-21.768707 12.625851 -26.122450 93 139 172
-24.937500 14.500000 -30.000000 92 138 172
-24.875000 14.500000 -30.000000 91 137 171
-24.812500 14.500000 -30.000000 91 137 171
-24.750000 14.500000 -30.000000 91 137 171
-24.687500 14.500000 -30.000000 91 137 171
-24.625000 14.500000 -30.000000 91 137 171
-24.562500 14.500000 -30.000000 91 137 171
-24.500000 14.500000 -30.000000 91 137 171
-24.437500 14.500000 -30.000000 91 137 171
-20.869566 12.414716 -25.685619 91 137 171
-20.339869 12.130719 -25.098040 91 137 171
-20.155844 12.051948 -24.935064 91 137 171
-20.103895 12.051948 -24.935064 91 137 171
-24.125000 14.500000 -30.000000 91 137 171
-24.062500 14.500000 -30.000000 91 137 171
-24.000000 14.500000 -30.000000 89 136 172
-23.937500 14.500000 -30.000000 88 135 171
-23.875000 14.500000 -30.000000 88 135 169
-23.812500 14.500000 -30.000000 88 135 167
-23.750000 14.500000 -30.000000 88 134 165
-23.687500 14.500000 -30.000000 87 134 164
-23.625000 14.500000 -30.000000 87 134 164
-23.562500 14.500000 -30.000000 87 133 165
-19.789474 12.210526 -25.263159 88 131 164
-19.543974 12.091206 -25.016287 88 131 163
-23.375000 14.500000 -30.000000 88 131 163
-23.312500 14.500000 -30.000000 88 131 163
-23.250000 14.500000 -30.000000 88 131 163
-23.187500 14.500000 -30.000000 88 131 163
-20.413794 12.800000 -26.482759 88 131 163
-19.231270 12.091206 -25.016287 88 131 163
-18.574133 11.709779 -24.227129 88 131 163
-18.236025 11.527950 -23.850931 88 131 163
-17.532934 11.113772 -22.994013 88 131 163
-15.869565 10.086957 -20.869566 88 131 163
-15.655914 9.978495 -20.645161 88 131 163
-15.529411 9.925134 -20.534760 88 131 163
-15.122715 9.691906 -20.052219 89 132 164
-7.680851 4.936170 -10.212766 89 132 164
-12.715232 8.194261 -16.953642 91 133 163
-12.936937 8.360360 -17.297297 91 134 162
-9.313821 6.035772 -12.487804 91 135 162
-9.198068 5.977456 -12.367149 91 135 162
-9.099042 5.929712 -12.268371 91 135 164
-9.059011 5.920255 -12.248804 92 136 168
-8.919685 5.845669 -12.094488 93 137 171
-8.531722 5.607251 -11.601209 92 137 172
-8.319055 5.483013 -11.344166 93 137 171
-9.298014 6.145695 -12.715232 93 138 170
-9.105691 6.035772 -12.487804 94 139 170
-9.050243 6.016207 -12.447326 94 139 171
-8.894568 5.929712 -12.268371 94 139 171
-8.840764 5.910828 -12.229300 95 140 171
-8.596273 5.763975 -11.925466 95 140 171
-8.238806 5.540298 -11.462687 95 140 171
-8.166172 5.507419 -11.394659 95 140 170
-5.471585 3.700897 -7.657029 95 140 170
-5.401777 3.664363 -7.581441 95 140 170
-5.240848 3.576108 -7.398844 95 140 172
-5.190431 3.552153 -7.349282 95 140 173
-5.170172 3.548757 -7.342256 95 140 173
-5.154876 3.548757 -7.342256 95 140 173
-5.134670 3.545368 -7.335244 94 141 175
-5.075758 3.515152 -7.272727 94 141 175
-4.934442 3.427516 -7.091413 95 140 174
-4.901564 3.414903 -7.065317 95 139 174
-4.886845 3.414903 -7.065317 96 139 174
-7.940030 5.565217 -11.514243 95 139 173
-7.904191 5.556886 -11.497006 94 139 172
-7.845007 5.532042 -11.445603 93 138 171
-7.809524 5.523809 -11.428572 92 137 169
-7.774146 5.515602 -11.411590 91 136 167
-7.738873 5.507419 -11.394659 90 135 166
-5.053450 3.607386 -7.463557 90 135 166
-5.023256 3.596899 -7.441861 90 134 166
-5.017476 3.603884 -7.456311 90 133 165
-3.224105 2.330195 -4.821092 90 133 165
-3.200000 2.320000 -4.800000 91 133 164
-3.190000 2.320000 -4.800000 92 133 165
-3.180000 2.320000 -4.800000 91 134 166
-3.170000 2.320000 -4.800000 91 134 167
-3.156055 2.317104 -4.794007 91 134 168
-3.128492 2.304159 -4.767225 92 135 170
-3.093596 2.285714 -4.729064 92 136 171
-3.068627 2.274510 -4.705883 92 136 172
-3.056950 2.273117 -4.703001 93 137 172
-3.526577 2.630758 -5.442948 94 137 172
-3.547926 2.655222 -5.493562 94 138 173
-3.544086 2.660932 -5.505376 95 139 173
-3.509972 2.643875 -5.470086 95 140 173
-3.491116 2.638237 -5.458422 95 140 173
-3.477273 2.636364 -5.454545 95 141 174
-3.460993 2.632624 -5.446808 94 140 173
-3.449645 2.632624 -5.446808 94 140 173
-3.438298 2.632624 -5.446808 94 140 173
-3.426950 2.632624 -5.446808 93 139 172
-3.396333 2.617772 -5.416079 93 139 172
-3.373155 2.608573 -5.397048 94 139 172
-3.225893 2.503034 -5.178692 94 139 172
-3.204301 2.494624 -5.161290 94 139 172
-3.176471 2.481283 -5.133690 94 138 171
-3.138502 2.459907 -5.089463 93 138 170
-3.105263 2.442105 -5.052631 93 138 169
-2.971573 2.344915 -4.851548 93 138 169
-2.961466 2.344915 -4.851548 93 138 169
-2.949495 2.343434 -4.848485 93 138 169
-2.939394 2.343434 -4.848485 92 137 168
-2.934851 2.347881 -4.857685 92 137 168
-2.941476 2.361323 -4.885496 92 137 168
-2.942529 2.370370 -4.904214 91 136 167
-3.025033 2.445323 -5.059289 91 136 167
-3.006570 2.438896 -5.045992 90 135 166
-2.992126 2.435696 -5.039370 90 135 166
-2.877771 2.350855 -4.863838 90 135 165
-2.860392 2.344915 -4.851548 90 135 164
-2.850284 2.344915 -4.851548 90 135 164
-2.831234 2.337532 -4.836272 90 135 164
-2.746781 2.275904 -4.708767 91 135 162
-2.730275 2.270336 -4.697248 91 135 162
-2.722154 2.271726 -4.700122 91 135 162
-3.107994 2.603086 -5.385694 91 135 162
-3.101124 2.606742 -5.393259 92 134 162
-3.089888 2.606742 -5.393259 93 134 163
-3.078652 2.606742 -5.393259 93 134 164
-3.058824 2.599440 -5.378151 92 134 163
-2.887857 2.463172 -5.096218 91 134 163
-2.604204 2.229429 -4.612613 91 135 162
-2.580645 2.217443 -4.587814 90 134 162
-2.563431 2.210840 -4.574152 91 133 162
-2.705363 2.341956 -4.845426 91 132 162
-2.695268 2.341956 -4.845426 91 132 163
-2.683481 2.340479 -4.842371 91 132 163
-2.673392 2.340479 -4.842371 91 131 163
-2.673418 2.349367 -4.860759 91 131 163
-2.666667 2.352345 -4.866920 90 131 162
-2.649810 2.346397 -4.854614 90 131 160
-2.633039 2.340479 -4.842371 90 131 159
-2.619647 2.337532 -4.836272 90 131 159
-2.542331 2.277301 -4.711657 90 131 160
-2.489747 2.238842 -4.632087 90 131 161
-2.407494 2.173302 -4.496487 90 131 162
-2.396723 2.172030 -4.493856 90 131 163
-2.431466 2.212157 -4.576877 91 132 164
-2.421931 2.212157 -4.576877 92 133 165
-2.409524 2.209524 -4.571429 91 134 166
-2.400000 2.209524 -4.571429 90 134 166
-13.888889 12.888889 -26.666666 90 135 166
-13.597270 12.668942 -26.211603 89 136 166
-12.841424 12.012945 -24.854368 90 135 166
-12.466877 11.709779 -24.227129 91 135 166
-12.261683 11.563863 -23.925234 91 135 166
-12.211838 11.563863 -23.925234 91 135 166
-12.200000 11.600000 -24.000000 91 135 166
-14.671699 14.007547 -28.981133 91 135 167
-14.080000 13.498181 -27.927273 91 136 167
-13.250859 12.756014 -26.391752 91 135 166
-12.715232 12.291390 -25.430464 90 135 166
-12.415585 12.051948 -24.935064 90 135 166
-11.937304 11.636364 -24.075235 90 134 166
-11.631902 11.386503 -23.558283 90 133 165
-11.073314 10.885631 -22.521994 90 132 164
-10.217391 10.086957 -20.869566 90 131 163
-10.173913 10.086957 -20.869566 89 130 162
-11.095238 11.047619 -22.857143 90 129 162
-10.982248 10.982248 -22.721893 89 128 160
-9.650130 9.691906 -20.052219 89 128 159
-9.583333 9.666667 -20.000000 88 127 158
-9.467700 9.591731 -19.844961 88 127 158
-9.306123 9.469388 -19.591837 88 127 158
-8.143497 8.322870 -17.219730 88 127 158
-7.860869 8.069565 -16.695652 87 126 157
-7.758621 8.000000 -16.551723 87 126 157
-7.641791 7.914712 -16.375267 87 126 157
-7.607676 7.914712 -16.375267 87 126 157
-7.525424 7.864407 -16.271187 86 125 155
-7.491526 7.864407 -16.271187 86 126 153
-7.569892 7.982796 -16.516129 86 126 153
-7.821429 8.285714 -17.142857 87 126 154
-7.785714 8.285714 -17.142857 87 126 157
-6.794520 7.264188 -15.029354 88 127 158
-6.750000 7.250000 -15.000000 87 128 160
-6.718750 7.250000 -15.000000 87 128 160
-7.331906 7.948608 -16.445396 87 128 160
-7.085239 7.717256 -15.966736 87 128 160
-6.637965 7.264188 -15.029354 89 130 162
-6.517375 7.166023 -14.826255 89 131 163
-6.327683 6.990584 -14.463277 89 132 164
-5.908127 6.558304 -13.568905 91 134 166
-5.757785 6.422145 -13.287197 90 136 168
-5.623090 6.302207 -13.039049 91 137 170
-5.282051 5.948718 -12.307693 93 139 172
-5.165354 5.845669 -12.094488 94 140 174
-2.148782 2.443713 -5.055958 95 142 176
-2.125654 2.429319 -5.026178 96 144 179
-2.116568 2.430910 -5.029469 96 144 180
-2.106090 2.430910 -5.029469 97 145 182
-2.103879 2.440500 -5.049310 98 145 180
-2.377894 2.772218 -5.735624 97 146 179
-2.373034 2.780524 -5.752809 96 145 178
-2.352239 2.770149 -5.731343 95 144 177
-12.250000 14.500000 -30.000000 94 143 176
-12.187500 14.500000 -30.000000 95 142 175
-12.125000 14.500000 -30.000000 97 142 175
-12.062500 14.500000 -30.000000 104 138 169
-12.000000 14.500000 -30.000000 140 110 131
-11.937500 14.500000 -30.000000 168 81 90
-11.875000 14.500000 -30.000000 160 67 71
-11.812500 14.500000 -30.000000 172 74 74
-11.750000 14.500000 -30.000000 179 80 82
-11.687500 14.500000 -30.000000 176 79 78
-11.625000 14.500000 -30.000000 170 76 71
-11.562500 14.500000 -30.000000 169 78 78
-11.500000 14.500000 -30.000000 172 84 88
-11.437500 14.500000 -30.000000 177 89 94
-11.375000 14.500000 -30.000000 178 86 94
-11.312500 14.500000 -30.000000 183 93 103
-11.250000 14.500000 -30.000000 187 105 115
-11.187500 14.500000 -30.000000 190 117 128
-11.125000 14.500000 -30.000000 195 130 140
-11.062500 14.500000 -30.000000 203 142 154
-11.000000 14.500000 -30.000000 210 153 166
-10.937500 14.500000 -30.000000 217 166 181
-10.875000 14.500000 -30.000000 222 182 197
-10.812500 14.500000 -30.000000 228 199 213
-10.750000 14.500000 -30.000000 236 213 227
-10.687500 14.500000 -30.000000 242 225 237
-10.225564 13.954887 -28.872181 246 236 244
-10.127341 13.902621 -28.764046 247 241 248
-10.067416 13.902621 -28.764046 248 242 248
-10.007491 13.902621 -28.764046 220 218 225
-9.984962 13.954887 -28.872181 179 181 192
-10.312500 14.500000 -30.000000 175 177 190
-9.901887 14.007547 -28.981133 200 200 209
-9.804511 13.954887 -28.872181 243 239 245
-9.744361 13.954887 -28.872181 249 245 250
-10.062500 14.500000 -30.000000 246 243 250
-10.000000 14.500000 -30.000000 245 240 249
-9.937500 14.500000 -30.000000 242 234 244
-9.875000 14.500000 -30.000000 239 228 241
-9.812500 14.500000 -30.000000 233 219 234
-9.750000 14.500000 -30.000000 231 212 227
-9.687500 14.500000 -30.000000 228 204 220
-9.625000 14.500000 -30.000000 225 197 213
-9.562500 14.500000 -30.000000 220 187 203
-9.500000 14.500000 -30.000000 213 173 189
-9.437500 14.500000 -30.000000 207 160 175
-9.375000 14.500000 -30.000000 202 149 160
-9.312500 14.500000 -30.000000 195 136 144
-9.250000 14.500000 -30.000000 191 127 134
-9.187500 14.500000 -30.000000 183 120 125
-9.125000 14.500000 -30.000000 178 117 124
-9.062500 14.500000 -30.000000 174 115 123
-9.000000 14.500000 -30.000000 167 112 118
-8.937500 14.500000 -30.000000 157 107 112
-8.875000 14.500000 -30.000000 146 104 109
-8.513207 14.007547 -28.981133 141 112 115
-8.452830 14.007547 -28.981133 130 113 115
-8.392453 14.007547 -28.981133 116 105 106
-8.625000 14.500000 -30.000000 123 112 114
-8.562500 14.500000 -30.000000 128 115 118
-8.500000 14.500000 -30.000000 119 110 112
-8.437500 14.500000 -30.000000 98 92 95
-8.375000 14.500000 -30.000000 68 66 70
-8.312500 14.500000 -30.000000 37 37 41
-8.250000 14.500000 -30.000000 19 22 25
-8.187500 14.500000 -30.000000 14 18 20
-8.125000 14.500000 -30.000000 13 15 16
-8.062500 14.500000 -30.000000 14 14 15
-8.000000 14.500000 -30.000000 14 14 16
-7.937500 14.500000 -30.000000 12 13 15
-7.875000 14.500000 -30.000000 11 12 14
-7.812500 14.500000 -30.000000 11 12 14
-7.750000 14.500000 -30.000000 11 12 13
-7.687500 14.500000 -30.000000 11 12 12
-7.625000 14.500000 -30.000000 11 12 12
-7.562500 14.500000 -30.000000 11 12 12
-7.500000 14.500000 -30.000000 10 13 12
-7.437500 14.500000 -30.000000 10 13 12
-7.375000 14.500000 -30.000000 10 13 12
-7.312500 14.500000 -30.000000 10 12 11
-7.250000 14.500000 -30.000000 11 13 12
-7.187500 14.500000 -30.000000 12 13 12
-7.125000 14.500000 -30.000000 12 14 13
-7.062500 14.500000 -30.000000 14 15 15
-7.000000 14.500000 -30.000000 17 17 17
-6.937500 14.500000 -30.000000 23 21 22
-6.875000 14.500000 -30.000000 29 28 28
-6.812500 14.500000 -30.000000 38 36 36
-6.750000 14.500000 -30.000000 47 44 45
-6.687500 14.500000 -30.000000 57 54 55
-6.625000 14.500000 -30.000000 67 64 65
-6.562500 14.500000 -30.000000 79 75 75
-6.500000 14.500000 -30.000000 90 85 82
-6.437500 14.500000 -30.000000 98 91 88
-6.375000 14.500000 -30.000000 103 96 95
-6.312500 14.500000 -30.000000 105 98 99
-6.250000 14.500000 -30.000000 107 101 102
-6.187500 14.500000 -30.000000 106 100 101
-6.125000 14.500000 -30.000000 105 99 98
-6.062500 14.500000 -30.000000 104 99 98
-6.000000 14.500000 -30.000000 104 100 97
-5.937500 14.500000 -30.000000 100 97 94
-5.875000 14.500000 -30.000000 96 93 92
-5.812500 14.500000 -30.000000 95 95 94
-5.750000 14.500000 -30.000000 95 97 97
-5.687500 14.500000 -30.000000 95 97 99
-5.625000 14.500000 -30.000000 97 98 102
-5.562500 14.500000 -30.000000 98 98 103
-5.500000 14.500000 -30.000000 96 98 102
-5.437500 14.500000 -30.000000 95 98 102
-5.375000 14.500000 -30.000000 95 97 103
-5.312500 14.500000 -30.000000 95 96 103
-5.250000 14.500000 -30.000000 95 95 102
-5.187500 14.500000 -30.000000 97 96 101
-5.125000 14.500000 -30.000000 99 96 99
-5.062500 14.500000 -30.000000 100 96 96
-5.000000 14.500000 -30.000000 102 95 98
-4.937500 14.500000 -30.000000 104 99 104
-4.875000 14.500000 -30.000000 105 105 111
-4.812500 14.500000 -30.000000 105 110 120
-4.750000 14.500000 -30.000000 109 115 128
-4.687500 14.500000 -30.000000 116 118 131
-4.625000 14.500000 -30.000000 123 118 126
-4.562500 14.500000 -30.000000 126 113 115
-4.500000 14.500000 -30.000000 133 108 104
-4.437500 14.500000 -30.000000 129 82 78
-4.375000 14.500000 -30.000000 135 63 60
-4.312500 14.500000 -30.000000 147 54 53
-4.250000 14.500000 -30.000000 150 48 47
-4.187500 14.500000 -30.000000 150 47 47
-4.125000 14.500000 -30.000000 152 48 46
-4.062500 14.500000 -30.000000 155 49 46
-4.000000 14.500000 -30.000000 158 49 47
-3.937500 14.500000 -30.000000 161 50 49
-3.875000 14.500000 -30.000000 165 50 50
-3.812500 14.500000 -30.000000 168 50 51
-3.750000 14.500000 -30.000000 170 50 51
-3.687500 14.500000 -30.000000 173 52 53
-3.625000 14.500000 -30.000000 174 54 53
-3.562500 14.500000 -30.000000 175 56 54
-3.500000 14.500000 -30.000000 177 56 58
-3.437500 14.500000 -30.000000 178 54 57
-3.375000 14.500000 -30.000000 178 52 56
-3.312500 14.500000 -30.000000 178 52 57
-3.250000 14.500000 -30.000000 177 54 59
-3.187500 14.500000 -30.000000 174 56 59
-3.125000 14.500000 -30.000000 173 57 60
-3.062500 14.500000 -30.000000 175 57 61
-3.000000 14.500000 -30.000000 173 56 61
-2.937500 14.500000 -30.000000 172 57 62
-2.875000 14.500000 -30.000000 171 58 63
-2.812500 14.500000 -30.000000 168 59 62
-2.750000 14.500000 -30.000000 166 59 63
-2.687500 14.500000 -30.000000 165 62 65
-2.625000 14.500000 -30.000000 167 68 70
-2.562500 14.500000 -30.000000 169 73 76
-2.500000 14.500000 -30.000000 169 76 81
-2.437500 14.500000 -30.000000 164 69 78
-2.375000 14.500000 -30.000000 172 81 91
-2.312500 14.500000 -30.000000 173 93 99
-2.250000 14.500000 -30.000000 170 88 90
-2.187500 14.500000 -30.000000 171 77 80
-2.125000 14.500000 -30.000000 171 70 76
-2.062500 14.500000 -30.000000 174 70 77
-2.000000 14.500000 -30.000000 177 69 78
-1.937500 14.500000 -30.000000 174 66 74
-1.875000 14.500000 -30.000000 175 65 73
-1.812500 14.500000 -30.000000 176 64 72
-1.750000 14.500000 -30.000000 168 68 74
-1.687500 14.500000 -30.000000 162 78 82
-1.625000 14.500000 -30.000000 161 91 96
-1.562500 14.500000 -30.000000 154 97 102
-1.500000 14.500000 -30.000000 152 102 106
-1.437500 14.500000 -30.000000 156 99 103
